# .PCD v0.7 - Point Cloud Data file format
VERSION 0.7
FIELDS x y z
SIZE 4 4 4
TYPE F F F
COUNT 1 1 1
WIDTH 1618
HEIGHT 1
VIEWPOINT 0 0 0 1 0 0 0
POINTS 1618
DATA ascii
1.4798503 -0.47974283 0.053385019
1.4845405 -0.47238159 0.048761129
1.4859354 -0.47193745 0.041803718
1.4718678 -0.47865191 0.052723765
1.4732757 -0.47150743 0.051496863
1.4773999 -0.4701691 0.040414691
1.4700323 -0.46953651 0.028144002
1.4756091 -0.45703 0.018819213
1.4642204 -0.47195098 0.048099279
1.4670753 -0.46941617 0.039589167
1.4540219 -0.47402179 0.046870232
1.4547411 -0.46898964 0.039124012
1.4435391 -0.47163326 0.045431376
1.4464264 -0.46791026 0.037938476
1.4484249 -0.46799862 0.026639342
1.4341433 -0.46939409 0.045649529
1.4344635 -0.46751055 0.031939745
1.4394652 -0.46481079 0.029138088
1.4242457 -0.47024879 0.046452999
1.4237053 -0.4667449 0.031190634
1.4292226 -0.4640471 0.02835238
1.4138788 -0.47037721 0.04357028
1.4098804 -0.46626636 0.036500335
1.4189801 -0.46328336 0.027566552
1.4029633 -0.46910062 0.043346763
1.3991678 -0.46550384 0.035754323
1.3937172 -0.468128 0.042625904
1.3914306 -0.46444777 0.028943181
1.3984951 -0.46175605 0.025995135
1.3831996 -0.47268468 0.04664278
1.3836331 -0.46506682 0.041838169
1.3824193 -0.46320748 0.031885624
1.3875765 -0.45905593 0.026208162
1.3751318 -0.47010237 0.046480298
1.3744986 -0.46414629 0.04109633
1.3744124 -0.46320695 0.03100419
1.3637433 -0.47091591 0.044962287
1.3642602 -0.46442738 0.040373445
1.3641489 -0.46190214 0.032501936
1.3527638 -0.4698531 0.04557097
1.3521625 -0.46450889 0.039234161
1.3591559 -0.46215072 0.026695728
1.357525 -0.45870125 0.022852421
1.3438098 -0.46775371 0.045157433
1.3416674 -0.46249524 0.039482713
1.3456039 -0.46169168 0.032024384
1.3341036 -0.46751919 0.044614792
1.3325238 -0.46284732 0.038538098
1.3348913 -0.46092924 0.031278491
1.3370399 -0.45717379 0.021280885
1.3222954 -0.46591315 0.044087648
1.3244226 -0.46217954 0.038726926
1.3241785 -0.46016681 0.030532479
1.3123739 -0.46499214 0.04336524
1.3144182 -0.45830947 0.039112449
1.3134658 -0.45940432 0.029786468
1.316555 -0.4556464 0.019709349
1.3014739 -0.46414626 0.04234159
1.3053647 -0.45832226 0.022949934
1.3063124 -0.45488271 0.018923759
1.2921038 -0.46350524 0.043176413
1.2895081 -0.45686767 0.037144065
1.2920402 -0.45787945 0.028294563
1.2778866 -0.46818566 0.046249986
1.2837952 -0.46414676 0.041508198
1.279267 -0.45612079 0.036325097
1.2849455 -0.45354521 0.022608995
1.2712271 -0.46720555 0.045487523
1.274157 -0.46152937 0.041229248
1.2788067 -0.45744306 0.03364563
1.2726779 -0.45456943 0.024314404
1.2630099 -0.46256295 0.041447282
1.2645363 -0.45202345 0.02104342
1.2524021 -0.46211246 0.040215492
1.2575307 -0.45694664 0.032138467
1.2550998 -0.45106429 0.014995098
1.2429128 -0.46178731 0.039842963
1.2460767 -0.45734727 0.030104876
1.244127 -0.45050174 0.019477725
1.2323093 -0.46232486 0.044043064
1.2335645 -0.46125454 0.039776206
1.2339224 -0.44974089 0.018694997
1.2236965 -0.46125516 0.043381572
1.2240758 -0.46213087 0.038918614
1.2116871 -0.46118808 0.044974208
1.2152041 -0.46077329 0.037601113
1.2141298 -0.44800943 0.011852264
1.2013628 -0.4605788 0.044814348
1.2041922 -0.4587048 0.038250566
1.2033083 -0.44745821 0.016346455
1.1929004 -0.46018156 0.043334484
1.1949536 -0.45671314 0.034960032
1.1931038 -0.44669735 0.015563726
1.1834005 -0.45956445 0.04365027
1.1840518 -0.45598227 0.036279559
1.1834022 -0.44571835 0.0094950199
1.1739378 -0.45910031 0.042581677
1.1730573 -0.45496535 0.036441803
1.1731597 -0.44495463 0.0087093115
1.1615692 -0.45970681 0.041633964
1.1641158 -0.45414704 0.034712076
1.1624899 -0.44441473 0.013215303
1.154511 -0.4573136 0.041612387
1.1529306 -0.45515689 0.033810258
1.1522852 -0.44365388 0.012432337
1.1426997 -0.4565407 0.040390611
1.1472372 -0.45250076 0.032974005
1.1342928 -0.45571035 0.040238857
1.134778 -0.45544899 0.031652808
1.1315622 -0.44236428 0.016166925
1.1270124 -0.4625006 0.044510126
1.1240048 -0.45371658 0.038919687
1.1219305 -0.45345578 0.031561255
1.1213955 -0.44160628 0.015387177
1.1114686 -0.46037629 0.043222666
1.1131907 -0.45371315 0.038251162
1.1168714 -0.45398048 0.033255935
1.1105403 -0.4505356 0.017089725
1.1036967 -0.4593142 0.042578936
1.1025074 -0.45355788 0.038065672
1.1083528 -0.45145097 0.031513572
1.0916002 -0.45610654 0.043643236
1.0930179 -0.45240188 0.03808713
1.0816262 -0.45410079 0.044220686
1.0813781 -0.45213678 0.038464189
1.0910574 -0.43908861 0.0077354908
1.072107 -0.45497006 0.043116927
1.0718716 -0.45158762 0.037416101
1.0727309 -0.45101488 0.030237675
1.0807284 -0.43857405 0.01226747
1.0626476 -0.45319661 0.042075276
1.0615406 -0.45163998 0.037474513
1.0616958 -0.45027351 0.029483199
1.0519215 -0.45260826 0.041230559
1.0509747 -0.44731435 0.037946224
1.0506606 -0.44953215 0.028728724
1.0412438 -0.45910963 0.046040654
1.0419883 -0.45211998 0.040634871
1.0381259 -0.45200413 0.036037445
1.0320389 -0.45806271 0.045380473
1.0329038 -0.45328495 0.039828062
1.0349271 -0.44884664 0.034629345
1.0233004 -0.44926128 0.039032459
1.0254693 -0.44915876 0.034335852
1.0295699 -0.4444983 0.010878325
1.0132459 -0.45085657 0.038653493
1.0149453 -0.44841844 0.033572912
1.003297 -0.44918501 0.038146019
1.0032547 -0.44655797 0.029610157
0.99521983 -0.45387512 0.042739749
0.99346828 -0.44925472 0.038401842
0.99283075 -0.44542038 0.032086372
0.98254383 -0.44849351 0.038394094
0.9890846 -0.44147962 0.0077725649
0.9723078 -0.44727457 0.038098812
0.9616698 -0.45101038 0.042790532
0.96253479 -0.44709972 0.037335992
0.95183313 -0.44991443 0.043310761
0.95263875 -0.44594368 0.037071109
0.9590525 -0.43946069 0.010807514
0.94180542 -0.44996512 0.043490171
0.94240636 -0.44549647 0.037658095
0.94896907 -0.43870887 0.010033965
0.93345016 -0.44847792 0.040993094
0.93225104 -0.44435722 0.036322236
0.93929315 -0.43820775 0.014630437
0.91648883 -0.4543407 0.046502471
0.92321485 -0.44578657 0.04126215
0.92192 -0.44481593 0.035530567
0.92924762 -0.43745875 0.013859868
0.91110408 -0.44538084 0.041865826
0.91308993 -0.44316325 0.03575182
0.91871876 -0.43645334 0.0077133179
0.90064496 -0.4452174 0.040869117
0.9036867 -0.44202334 0.03507638
0.89487362 -0.45288849 0.045024514
0.89199972 -0.4454861 0.03969264
0.89352858 -0.44062901 0.033625007
0.89911091 -0.43521172 0.011548042
0.88406599 -0.45216236 0.044285536
0.88324124 -0.44337139 0.039539695
0.88323212 -0.44044313 0.032176018
0.88906544 -0.43446273 0.010777473
0.87146175 -0.45020723 0.045244336
0.8726747 -0.44349706 0.038811445
0.87376726 -0.43963945 0.03148067
0.87901986 -0.43371364 0.010006666
0.86444271 -0.45052576 0.042188883
0.86243153 -0.44292513 0.038167357
0.86360717 -0.43874207 0.032133222
0.86897433 -0.43296465 0.0092362165
0.85164326 -0.44998407 0.042068481
0.85236371 -0.44342896 0.038241267
0.85506999 -0.43809813 0.031893611
0.85892874 -0.43221566 0.0084656477
0.83930504 -0.44801632 0.043011069
0.84332633 -0.44137552 0.037267566
0.84794307 -0.43712458 0.032177091
0.84673285 -0.43125519 0.010152817
0.82714421 -0.44604021 0.043942809
0.83236378 -0.44035602 0.037140131
0.83306414 -0.43406287 0.030024529
0.83550918 -0.43028018 0.015262246
0.83962405 -0.4309966 0.01232338
0.81715631 -0.44836232 0.045901537
0.82305723 -0.44008708 0.035749197
0.82305777 -0.43333304 0.029224634
0.82533121 -0.42934132 0.020032406
0.82961631 -0.43025035 0.011555552
0.81134671 -0.4437016 0.041631103
0.81318921 -0.43999287 0.036791921
0.80220681 -0.44277769 0.041781425
0.80355692 -0.43928421 0.03622365
0.80960101 -0.428758 0.010020137
0.79365474 -0.44353959 0.040570259
0.79370987 -0.43871498 0.036363125
0.79959333 -0.4280118 0.0092525482
0.78310359 -0.4418925 0.039299965
0.78440702 -0.43787915 0.03538692
0.78059155 -0.42681533 0.013133645
0.77285635 -0.44477865 0.045025706
0.77372193 -0.44099563 0.039408088
0.77373374 -0.43727097 0.03436482
0.76307082 -0.44410264 0.044346213
0.76297879 -0.43981776 0.03886354
0.76957035 -0.42577326 0.0069494247
0.75328529 -0.44342664 0.04366684
0.75222069 -0.43931615 0.038936138
0.75068223 -0.42458528 0.010839224
0.75956267 -0.4250271 0.0061817169
0.74073625 -0.4416934 0.04361546
0.74184406 -0.43934938 0.038970351
0.74310178 -0.43392569 0.031524897
0.74264878 -0.43364701 0.017133117
0.72972536 -0.44025123 0.043373823
0.73219657 -0.43873283 0.038577318
0.72939652 -0.43236694 0.030541897
0.71922147 -0.43977469 0.042829633
0.72233582 -0.43670118 0.037870765
0.72286069 -0.43217164 0.015615106
0.72077286 -0.42235515 0.0085448027
0.72953963 -0.42278847 0.0038785934
0.71032149 -0.43890011 0.042031288
0.71100283 -0.4368012 0.037312984
0.71208179 -0.42192742 0.013216734
0.70023477 -0.4391968 0.042178512
0.70127296 -0.4348312 0.036480427
0.70307267 -0.43069616 0.014096975
0.69039851 -0.43852586 0.040342569
0.69230914 -0.43353397 0.038057208
0.69317859 -0.42995846 0.013338089
0.68116599 -0.43643901 0.04070425
0.68167251 -0.43312132 0.037603617
0.68467844 -0.4295097 0.018039107
0.68950897 -0.41980377 0.00080776215
0.67308879 -0.43673357 0.040943027
0.67322516 -0.4304485 0.037347078
0.67482233 -0.42877477 0.017283082
0.66277987 -0.43525323 0.040232658
0.6618464 -0.43144599 0.03582406
0.66349649 -0.42774528 0.011061192
0.65235978 -0.44010696 0.04469943
0.6520223 -0.43530852 0.040365696
0.65360254 -0.42700762 0.010302186
0.64306837 -0.43942586 0.04553175
0.64224756 -0.43472391 0.040040255
0.63868862 -0.42968589 0.032219172
0.64370847 -0.42626989 0.0095431805
0.63312507 -0.4380644 0.046067476
0.63097286 -0.4350554 0.039099693
0.63195938 -0.42974961 0.034687996
0.63381445 -0.42553216 0.0087841749
0.61889404 -0.43709165 0.045096636
0.62290215 -0.43397933 0.0392766
0.61897886 -0.42824852 0.030643344
0.62392044 -0.42479444 0.0080252886
0.6090287 -0.43688309 0.045182586
0.6123153 -0.4330031 0.039439678
0.61568546 -0.42436546 0.012746453
0.60059369 -0.43574893 0.042772174
0.60150766 -0.43345577 0.038700342
0.59926921 -0.42681107 0.029067755
0.60413247 -0.42331904 0.0065072775
0.5904566 -0.43396392 0.042791009
0.5912255 -0.43090865 0.037858129
0.5942384 -0.42258134 0.0057482719
0.58153605 -0.43407863 0.04238081
0.58030546 -0.42869112 0.037218094
0.58611697 -0.42216077 0.010478258
0.56999302 -0.441084 0.050998449
0.57110256 -0.43325782 0.042853832
0.57063484 -0.42973819 0.035985827
0.57626081 -0.42142588 0.0097222328
0.56161559 -0.43497938 0.049713731
0.56061745 -0.43166554 0.040409803
0.56511497 -0.43038732 0.037139773
0.5645563 -0.42036819 0.0034713745
0.5521487 -0.43653402 0.050623059
0.55152011 -0.43068522 0.040421009
0.55654854 -0.41995609 0.008210063
0.541646 -0.43581843 0.049893737
0.54156762 -0.42999974 0.040893078
0.54861659 -0.41954973 0.01295495
0.52952099 -0.43424821 0.048545122
0.5314014 -0.42985842 0.039035797
0.5348742 -0.41815504 0.0011944771
0.51957422 -0.43356782 0.047858238
0.52055973 -0.42945969 0.037939548
0.52043045 -0.4210614 0.022764683
0.52698004 -0.41775143 0.0059417486
0.50324196 -0.44303724 0.070138812
0.50872231 -0.4392572 0.05537343
0.50890911 -0.43091872 0.046877623
0.51191914 -0.42811406 0.037845016
0.51057553 -0.42034277 0.021976829
0.51508611 -0.41667959 -0.00032365322
0.51344365 -0.40711671 -0.0020210743
0.49758708 -0.44145977 0.063055754
0.49976832 -0.43439344 0.054659128
0.50090069 -0.43058512 0.047875881
0.50183874 -0.4270798 0.037207246
0.50072062 -0.41962403 0.021188974
0.50163883 -0.41623199 0.014704227
0.50726771 -0.41628167 0.0044295788
0.48832196 -0.43974805 0.061251402
0.49055183 -0.43209738 0.058144808
0.48960638 -0.42941898 0.047075748
0.49165922 -0.4231059 0.033855438
0.49185848 -0.41550276 0.013954043
0.47808009 -0.43881243 0.064682961
0.47775704 -0.43278489 0.054757237
0.48080158 -0.43048525 0.048552513
0.4815371 -0.42326629 0.037081122
0.48207802 -0.41477352 0.013203859
0.46934319 -0.44013461 0.063744664
0.47006941 -0.43228814 0.052622914
0.47100085 -0.43036231 0.048740745
0.46939993 -0.42564803 0.039320469
0.47229767 -0.41404426 0.012453437
0.46102351 -0.43318409 0.049754858
0.45966423 -0.42933568 0.043755293
0.45998466 -0.42352965 0.038030386
0.45738363 -0.42588747 0.029111624
0.44808739 -0.43036279 0.052342296
0.44959652 -0.42762211 0.0470016
0.44907987 -0.42404574 0.036052346
0.45457929 -0.41287115 0.015376806
0.43654722 -0.42907983 0.052070975
0.4397161 -0.42698398 0.043673515
0.44182181 -0.42496327 0.036459208
0.44295651 -0.41185653 0.010202646
0.4283728 -0.42682868 0.050634384
0.42812264 -0.42583594 0.040744185
0.43252742 -0.42403799 0.037060976
0.43274152 -0.42096588 0.023700118
0.43079734 -0.4107649 0.0039167404
0.42061383 -0.42757019 0.049249053
0.42083538 -0.42439145 0.039500952
0.42095876 -0.42294499 0.031479478
0.42661315 -0.41444278 0.026003718
0.42339575 -0.41039804 0.0087021589
0.41011357 -0.426388 0.039495707
0.41412139 -0.42157629 0.03564167
0.40863967 -0.42233258 0.025214672
0.4155789 -0.40996325 0.012384892
0.39953715 -0.42904136 0.049464107
0.40527177 -0.42060471 0.034497738
0.3846513 -0.43374556 0.053803563
0.39110237 -0.42857713 0.049660921
0.38875663 -0.42714942 0.035030365
0.3919403 -0.41908842 0.03354156
0.38268882 -0.42718151 0.049441099
0.37033111 -0.4323301 0.051423311
0.37133211 -0.42494994 0.048793435
0.35910308 -0.43000078 0.054495931
0.36002547 -0.42606947 0.045933247
0.35035527 -0.42836896 0.054614067
0.35096079 -0.4266783 0.044852853
0.33997148 -0.42793953 0.051490426
0.3410399 -0.42623588 0.04675138
0.33064228 -0.43111768 0.058382988
0.32922435 -0.42765605 0.053791285
0.33086509 -0.42552251 0.046038151
0.32201236 -0.4305217 0.057795286
0.32078981 -0.42667875 0.053439856
0.32133114 -0.42501825 0.044870853
0.30900735 -0.43018526 0.060994983
0.31031168 -0.42672095 0.053767323
0.31099659 -0.42430428 0.044141889
0.29612237 -0.42873374 0.056031942
0.30102885 -0.425183 0.051986933
0.28916895 -0.42866951 0.059149742
0.29020745 -0.42535362 0.051255941
0.29032767 -0.42287609 0.04268384
0.27968144 -0.42802402 0.058502078
0.28117162 -0.42406654 0.049492121
0.27019393 -0.42737857 0.057854414
0.27098596 -0.42440638 0.052506804
0.25988567 -0.4265669 0.056253433
0.26037192 -0.42025369 0.050019741
0.24930996 -0.42563945 0.054096341
0.25073814 -0.42031553 0.045649767
0.23820508 -0.42489812 0.053287387
0.24060118 -0.41960478 0.04493928
0.22746164 -0.42155662 0.052168369
0.23026609 -0.42066664 0.047373772
0.21953857 -0.42117798 0.052632809
0.22004724 -0.41996038 0.046663523
0.20982105 -0.4223015 0.05232656
0.2110945 -0.41769415 0.045505047
0 0 -1
0.20162243 -0.41733354 0.047953844
0 0 -1
0 0 -1
0 0 -1
0 0 -1
0 0 -1
0 0 -1
0 0 -1
0 0 -1
0 0 -1
0 0 -1
0 0 -1
0 0 -1
0 0 -1
0 0 -1
0 0 -1
0 0 -1
0 0 -1
0 0 -1
0 0 -1
0 0 -1
0 0 -1
0 0 -1
0 0 -1
0 0 -1
0 0 -1
0 0 -1
0 0 -1
0 0 -1
0 0 -1
0 0 -1
0 0 -1
0 0 -1
0 0 -1
0 0 -1
0 0 -1
0 0 -1
0 0 -1
0 0 -1
0 0 -1
0 0 -1
0 0 -1
0 0 -1
0 0 -1
0 0 -1
0 0 -1
0 0 -1
0 0 -1
0 0 -1
0 0 -1
0 0 -1
0 0 -1
0 0 -1
0 0 -1
0 0 -1
0 0 -1
0 0 -1
0 0 -1
0 0 -1
0 0 -1
0 0 -1
0 0 -1
0 0 -1
0 0 -1
0 0 -1
0 0 -1
0 0 -1
0 0 -1
0 0 -1
0 0 -1
0 0 -1
0 0 -1
0 0 -1
0 0 -1
0 0 -1
0 0 -1
0 0 -1
0 0 -1
0 0 -1
0 0 -1
0 0 -1
0 0 -1
0 0 -1
0 0 -1
0 0 -1
0 0 -1
0 0 -1
0 0 -1
0 0 -1
0 0 -1
0 0 -1
0 0 -1
0 0 -1
0 0 -1
2.3653617 -0.18084276 -0.72883916
2.3564348 -0.18055409 -0.72795129
2.3487406 -0.17958599 -0.73010039
2.3402209 -0.17934847 -0.72917295
2.3321195 -0.17832917 -0.73136163
2.3077922 -0.17693734 -0.73161674
2.2988772 -0.17581552 -0.73388457
2.265635 -0.17330188 -0.73640728
2.25915 -0.17332053 -0.73528171
2.2512531 -0.1800319 -0.72838306
2.1947074 -0.18454897 -0.70338607
2.152009 -0.17800456 -0.70670509
2.146524 -0.1790688 -0.70684195
2.147469 -0.16469294 -0.74453545
2.154253 -0.16554755 -0.74919748
2.1302657 -0.16404575 -0.73709321
2.1310515 -0.16346169 -0.74577689
2.1070559 -0.17201388 -0.72394848
2.1067152 -0.16264707 -0.73295951
2.0799551 -0.18627614 -0.6951859
2.0889649 -0.18146902 -0.69997883
2.0822792 -0.17176202 -0.71144938
2.0821769 -0.17591733 -0.71883535
2.0921493 -0.17076242 -0.72644782
2.0918822 -0.1616247 -0.73509908
2.0753083 -0.16950673 -0.72773957
2.0755632 -0.16040093 -0.73633313
2.0648642 -0.18313736 -0.69234896
2.0662179 -0.1699352 -0.71260166
2.0662634 -0.17467314 -0.72003984
2.0653257 -0.16108459 -0.73352814
2.0503845 -0.17999998 -0.68939781
2.0584671 -0.16825098 -0.72903156
2.0592442 -0.15917701 -0.73756742
2.0503497 -0.17342865 -0.7212441
2.034436 -0.17218441 -0.72244859
2.041626 -0.16699532 -0.73032331
2.0294902 -0.16701931 -0.72856379
2.0261369 -0.15665573 -0.73903108
2.0181899 -0.16802672 -0.71697068
2.0185223 -0.17094001 -0.72365308
2.0026085 -0.16969565 -0.72485757
2.0079439 -0.1644839 -0.7329073
2.0102866 -0.1555056 -0.74126983
1.9963291 -0.18017721 -0.7018714
1.9866949 -0.16845137 -0.72606182
1.9911028 -0.16322821 -0.73419929
1.9939674 -0.15428188 -0.74250388
1.9796038 -0.17895758 -0.70320845
1.9775069 -0.1530551 -0.74480152
1.9691596 -0.15144843 -0.74928665
1.9548675 -0.16596267 -0.7284708
1.9613292 -0.15183419 -0.74497199
1.9461534 -0.17651805 -0.70588279
1.94648 -0.17418441 -0.71281624
1.95128 -0.16303781 -0.72210336
1.9455585 -0.15066436 -0.74510312
1.9444616 -0.15055636 -0.74730921
1.8959777 -0.17285869 -0.70989418
1.5659475 -0.46512049 0.041975975
1.5559411 -0.4641948 0.04121542
1.5434524 -0.47246841 0.052812815
1.5438513 -0.46490347 0.048150063
1.5470886 -0.46324229 0.04022181
1.5353947 -0.47136715 0.052145362
1.5346298 -0.46397352 0.047401309
1.5368842 -0.46231171 0.03950119
1.5268902 -0.46631715 0.054146051
1.5247829 -0.46381691 0.043679476
1.5244911 -0.46329099 0.035894871
1.513526 -0.46848398 0.053449988
1.515275 -0.46395698 0.045882702
1.5014729 -0.46683681 0.052451611
1.5036521 -0.46418855 0.041152239
1.5028837 -0.46175319 0.03439033
1.4934379 -0.46573862 0.051785946
1.4926805 -0.46320036 0.042927742
1.4854026 -0.46464053 0.05112052
1.4873745 -0.46270168 0.042444944
1.4812763 -0.46021533 0.032885671
1.4738914 -0.46297187 0.049616694
1.4794056 -0.46044812 0.039110899
1.4737685 -0.45913291 0.026107073
1.461297 -0.46134609 0.049123883
1.4680126 -0.46081761 0.041073322
1.4674926 -0.44637549 0.015788078
1.4517956 -0.46403277 0.049274445
1.4589903 -0.45995462 0.037778497
1.4596688 -0.45867747 0.031380892
1.4570833 -0.44559938 0.014989734
1.4437754 -0.46293664 0.048610091
1.4467949 -0.45876375 0.040330052
1.434902 -0.45746282 0.035912156
1.4345667 -0.44431192 0.019616961
1.424041 -0.45871156 0.048957586
1.4241438 -0.45669717 0.035163045
1.4296304 -0.45453262 0.032283664
1.4143516 -0.45977178 0.047769666
1.4133854 -0.45593145 0.034413815
1.4050082 -0.45863917 0.046415329
1.404073 -0.45522165 0.036098003
1.3958873 -0.45809621 0.044252276
1.3918689 -0.45440012 0.032915592
1.3856481 -0.45665061 0.043460965
1.3829902 -0.45370296 0.034523368
1.3886571 -0.45095673 0.026316524
1.3753591 -0.4586648 0.043902159
1.3762844 -0.45307353 0.032983065
1.376563 -0.45150036 0.023729205
1.3665347 -0.45995674 0.04855597
1.3637983 -0.45664522 0.043572068
1.3649201 -0.45234579 0.03524363
1.3624353 -0.45175719 0.024610162
1.3707854 -0.44950509 0.01608789
1.3530935 -0.45609641 0.043223739
1.3542687 -0.45160457 0.035407662
1.3428904 -0.4610866 0.04516983
1.3430524 -0.45228267 0.044794917
1.3475528 -0.45226276 0.034132123
1.3337753 -0.45886287 0.046579123
1.3332043 -0.45341855 0.040940762
1.3224723 -0.4590106 0.045868754
1.3220723 -0.45295256 0.041825652
1.3094647 -0.45599553 0.044269919
1.3121697 -0.45209983 0.041215897
1.3165613 -0.44904029 0.027671576
1.3169627 -0.44613189 0.023640633
1.2996473 -0.45508716 0.043523788
1.3030719 -0.45279908 0.040463805
1.2925466 -0.45292145 0.043697238
1.291815 -0.45167968 0.038010597
1.284374 -0.45330483 0.042347908
1.282071 -0.4487136 0.040796161
1.2842866 -0.44674325 0.025424123
1.2862351 -0.44384086 0.021283627
1.2740283 -0.45273921 0.042060614
1.2759578 -0.45029944 0.037688136
1.2735285 -0.44597757 0.024674892
1.2759926 -0.44307712 0.020497799
1.2643962 -0.45340756 0.042613745
1.2656622 -0.4491742 0.038381934
1.2627702 -0.44521189 0.023925781
1.2657501 -0.44231346 0.01971221
1.254323 -0.45050743 0.041779041
1.2564307 -0.44739318 0.037524104
1.2555076 -0.44154978 0.018926382
1.2450713 -0.4515332 0.041477561
1.2462111 -0.44653359 0.036767364
1.2496258 -0.44482446 0.029266238
1.245265 -0.44078606 0.018140674
1.2343925 -0.4542143 0.047502518
1.2341354 -0.44968086 0.040851593
1.2346424 -0.4467161 0.035559416
1.2389131 -0.44406202 0.028520226
1.2350225 -0.44002232 0.017354965
1.2239225 -0.45040882 0.040720463
1.2244334 -0.44580024 0.034833908
1.2282003 -0.44329953 0.027774215
1.2255673 -0.43896833 0.010257959
1.2138797 -0.44877297 0.039698839
1.2145623 -0.44423118 0.033781171
1.2029438 -0.44991645 0.044897795
1.2042562 -0.44804955 0.039905906
1.2070839 -0.44153529 0.035756826
1.204295 -0.43773124 0.014997721
1.1937815 -0.44953674 0.047076106
1.1944546 -0.44759411 0.039840698
1.1940525 -0.43696761 0.014212132
1.1854212 -0.44808459 0.0465343
1.1836867 -0.44698358 0.038975358
1.1832361 -0.44064751 0.030899048
1.1698736 -0.45310381 0.043061376
1.1738708 -0.44523153 0.038398743
1.1772423 -0.43910867 0.032000542
1.162077 -0.44821301 0.045102715
1.1642761 -0.44521967 0.036466956
1.1670011 -0.43836182 0.031181812
1.163325 -0.43467647 0.011854887
1.154615 -0.44718465 0.042913675
1.1539837 -0.44432461 0.037303805
1.1428556 -0.44557753 0.041939735
1.1452103 -0.44360259 0.036046505
1.1424868 -0.43341365 0.01556623
1.1345954 -0.44828242 0.040139198
1.136084 -0.44318601 0.034946203
1.1322821 -0.4326528 0.014783502
1.1236967 -0.44367939 0.04258585
1.125213 -0.44228688 0.035099864
1.1220775 -0.43189195 0.014000654
1.1128815 -0.44340235 0.040967226
1.1160959 -0.44177824 0.035088658
1.1116334 -0.43140411 0.018509388
1.1030654 -0.4440341 0.039250255
1.1075147 -0.44208956 0.036015987
1.0924959 -0.44365671 0.040681601
1.0948595 -0.44259477 0.034009099
1.0827986 -0.44338164 0.038969278
1.0841832 -0.44143742 0.035027385
1.0912999 -0.42988795 0.016949534
1.07319 -0.44324973 0.038075089
1.0746187 -0.43984818 0.033731222
1.081259 -0.42884845 0.010869503
1.0629272 -0.44254619 0.038829088
1.0636533 -0.43910113 0.032969713
1.0709664 -0.42837191 0.0153898
1.0524918 -0.44251525 0.043714762
1.052706 -0.44106966 0.037848949
1.0510778 -0.43921322 0.03276372
1.0424154 -0.44080421 0.037515163
1.0400428 -0.43847182 0.032009125
1.050633 -0.42685574 0.013829827
1.0333096 -0.43938324 0.03821671
1.0404662 -0.42609772 0.013050079
1.0215118 -0.44188359 0.041018248
1.0252289 -0.43937689 0.036359191
1.0302994 -0.4253397 0.012270093
1.0137477 -0.43978661 0.04063046
1.0154799 -0.43801481 0.035957456
1.0201325 -0.42458162 0.011490107
1.0040517 -0.43914646 0.040541053
1.0039622 -0.4376623 0.034906268
1.0099659 -0.4238236 0.010710359
0.99448806 -0.43973243 0.039448977
0.99497819 -0.43674991 0.035535097
0.99979913 -0.42306551 0.0099303722
0.98341614 -0.43889487 0.039108157
0.98436755 -0.43569946 0.034723997
0.97286832 -0.43718427 0.038198471
0.97299224 -0.43515745 0.035077691
0.9794656 -0.42154941 0.0083703995
0.96264243 -0.43765625 0.037107706
0.96383882 -0.43403414 0.035067081
0.96929884 -0.42079139 0.0075906515
0.9535532 -0.43710694 0.038283467
0.95232463 -0.43222255 0.034522176
0.95912361 -0.4298138 0.0093282461
0.95913208 -0.42003337 0.0068106651
0.94268245 -0.43606457 0.037665606
0.94412971 -0.43103346 0.034839988
0.94900233 -0.42905912 0.0085515976
0.93159646 -0.43551153 0.043966293
0.93263304 -0.4354367 0.037478685
0.93928701 -0.42859039 0.013130665
0.92245513 -0.4384146 0.042779326
0.92275685 -0.43421966 0.036839604
0.92920363 -0.4278385 0.012357116
0.92863178 -0.41775918 0.0044709444
0.91225362 -0.44049054 0.041367292
0.9129433 -0.43380287 0.037158012
0.91255498 -0.43014312 0.029441118
0.91912019 -0.42708662 0.011583567
0.90077639 -0.43892205 0.040416718
0.90319484 -0.43257847 0.035833597
0.90955639 -0.42662922 0.016174197
0.89292377 -0.43407646 0.041454911
0.89315176 -0.43165404 0.035003901
0.89895332 -0.425583 0.010036588
0.88239086 -0.43541422 0.04140234
0.88316453 -0.43191016 0.035641789
0.88886994 -0.42483118 0.0092630386
0.88796479 -0.41472697 0.0013513565
0.87174672 -0.43477279 0.040600657
0.87421489 -0.43129462 0.035380244
0.8794198 -0.42438209 0.013862371
0.86112714 -0.43333322 0.038356066
0.86503035 -0.43101591 0.033848286
0.86870307 -0.42332745 0.0077159405
0.85205185 -0.4398779 0.046020389
0.8537336 -0.43335006 0.038172364
0.85544628 -0.42918038 0.033739805
0.85861963 -0.42257562 0.0069423914
0.84124422 -0.43915176 0.04528141
0.84345943 -0.43263105 0.038512111
0.84437609 -0.42808804 0.033334374
0.84706771 -0.42316908 0.013433337
0.83043665 -0.43842569 0.044542313
0.83283925 -0.43246409 0.038523674
0.83190095 -0.42680833 0.03401804
0.83577812 -0.42346078 0.017959595
0.83923757 -0.42138612 0.010779977
0.81962907 -0.43769959 0.043803334
0.82353896 -0.43146229 0.037824154
0.82228941 -0.42456874 0.032940745
0.82732499 -0.42280376 0.019551516
0.82836938 -0.42032015 0.0046219826
0.80882144 -0.43697345 0.043064356
0.81282437 -0.43080416 0.037397146
0.81268388 -0.42368039 0.032210588
0.81734926 -0.42532602 0.022446394
0.79801387 -0.43624735 0.042325377
0.80336803 -0.43004963 0.036225557
0.80415606 -0.42371753 0.027382493
0.80912256 -0.42809629 0.022178531
0.80910093 -0.41913906 0.0084681511
0.79431909 -0.42976752 0.035899997
0.79130405 -0.42403325 0.031173944
0.7990554 -0.41839007 0.0076975822
0.78720623 -0.43552125 0.041586399
0.78467369 -0.429501 0.036538959
0.78317457 -0.42335245 0.030741453
0.78998405 -0.41796929 0.012325883
0.77436107 -0.43085212 0.043859005
0.77420795 -0.42839551 0.036508322
0.77997643 -0.4172231 0.011558294
0.76261485 -0.43085611 0.043649077
0.76408088 -0.42802083 0.036030531
0.76339787 -0.41963008 0.028199077
0.76996875 -0.41647694 0.010790467
0.75225073 -0.43121442 0.039942384
0.75426269 -0.42598203 0.035372376
0.75887322 -0.41539398 0.0046150684
0.7419855 -0.42918295 0.038515568
0.74429476 -0.42516476 0.034853697
0.7488277 -0.41464499 0.0038444996
0.73288977 -0.42858052 0.038998842
0.73432171 -0.42377269 0.033109188
0.72026891 -0.42937708 0.046451807
0.722498 -0.42627487 0.038782358
0.723019 -0.42185852 0.035159588
0.72873658 -0.41314697 0.0023033619
0.70968413 -0.42864576 0.04570508
0.71147311 -0.4268463 0.038606405
0.71193111 -0.42149886 0.031897545
0.71993041 -0.41274595 0.0069519281
0.70339149 -0.42486444 0.03853786
0.70279425 -0.42045975 0.031242371
0.70123017 -0.4116073 0.010841727
0.70992273 -0.41199976 0.0061843395
0.68770659 -0.42872044 0.045644164
0.69317174 -0.42460892 0.037472963
0.69463336 -0.41946194 0.034868121
0.67793 -0.42645177 0.043465257
0.68263024 -0.42526704 0.037941098
0.68367845 -0.42003 0.016376615
0.68268144 -0.41047987 0.014743209
0.68855441 -0.41015095 -0.00077915192
0.67314959 -0.4319092 0.044231415
0.67343152 -0.4241223 0.038480997
0.67642009 -0.41739044 0.033561826
0.67378438 -0.41929227 0.015617609
0.67274952 -0.40973935 0.013981223
0.6664598 -0.42633408 0.043331027
0.66163284 -0.42392865 0.038333297
0.66389036 -0.41855454 0.014858603
0.6628176 -0.40899882 0.013219357
0.65363437 -0.42597771 0.041925669
0.65187085 -0.42239958 0.037617803
0.65399641 -0.41781682 0.014099717
0.65288579 -0.40825829 0.012457609
0.64333695 -0.42504576 0.04124105
0.64030468 -0.42278013 0.036843061
0.64410239 -0.41707912 0.013340592
0.64295387 -0.40751776 0.011695623
0.63389301 -0.4252021 0.040452838
0.63105297 -0.42135441 0.03643024
0.63420838 -0.41634142 0.012581706
0.63302201 -0.40677723 0.010933876
0.62245142 -0.42423892 0.040420294
0.62197018 -0.42075858 0.036407232
0.62431431 -0.41560367 0.011822701
0.61163759 -0.42389095 0.04064548
0.61116159 -0.41997135 0.033967614
0.61442029 -0.414866 0.011063695
0.61315817 -0.40529615 0.0094100237
0.60222208 -0.42250848 0.040810823
0.59925699 -0.4202261 0.033267975
0.60452628 -0.41412827 0.010304809
0.58992404 -0.4259403 0.04665494
0.59337252 -0.42130551 0.039756536
0.58857661 -0.4220916 0.033034444
0.59636545 -0.4137401 0.01501739
0.58161366 -0.42682508 0.046123862
0.58288532 -0.4206703 0.039745092
0.58209306 -0.41806194 0.030010223
0.58650935 -0.4130052 0.014261365
0.57241821 -0.42054358 0.037697315
0.57665318 -0.41227031 0.01350522
0.56038761 -0.42269391 0.046622992
0.56190383 -0.42024806 0.037793756
0.56495017 -0.41117743 0.0072689056
0.56349862 -0.40159342 0.0056004524
0.55062085 -0.42171982 0.043657303
0.55392611 -0.41987309 0.038550496
0.55505615 -0.41043973 0.0065097809
0.54183108 -0.42207485 0.043856978
0.54343313 -0.41702649 0.038342953
0.54708469 -0.41006562 0.011237025
0.5287261 -0.42845953 0.051866412
0.53071201 -0.42246345 0.045104265
0.53216487 -0.41749147 0.038099647
0.53722858 -0.40933076 0.010480881
0.51830816 -0.42773968 0.051131368
0.52077639 -0.42132077 0.044488072
0.52228916 -0.41516301 0.038008571
0.526802 -0.41769502 0.028732657
0.52737236 -0.40859586 0.0097248554
0.51087344 -0.42055374 0.042936325
0.51271677 -0.41552591 0.03548193
0.51372713 -0.41406086 0.026854992
0.49879909 -0.4243674 0.049181223
0.50184637 -0.4190146 0.041993976
0.50350559 -0.41455737 0.03629303
0.50109309 -0.41044071 0.024906158
0.50202817 -0.40714684 0.018458247
0.50558591 -0.40675113 0.0027147532
0.5039072 -0.39715019 0.0010291338
0.488702 -0.42828822 0.056886315
0.48935163 -0.42287794 0.048876643
0.49396843 -0.41793579 0.043208241
0.49432397 -0.41467083 0.033902884
0.49224776 -0.40641755 0.017708063
0.47993284 -0.42219439 0.04945755
0.48263818 -0.41706592 0.040585756
0.48453152 -0.41433489 0.036517501
0.48246729 -0.40568835 0.01695776
0.47229111 -0.42840654 0.058067799
0.47043252 -0.42138717 0.047647119
0.47282344 -0.41773364 0.040480018
0.47656393 -0.41356048 0.033974648
0.45977706 -0.42261603 0.053640962
0.46286607 -0.41755533 0.049029469
0.46147692 -0.41587293 0.040866017
0.46750093 -0.41751403 0.033568144
0.46064299 -0.40384072 0.0099446774
0.46823543 -0.40418655 0.0051883459
0.45043927 -0.4202407 0.05344367
0.45008707 -0.4192647 0.049182892
0.45114011 -0.41543666 0.039131045
0.45082474 -0.40310866 0.0091916323
0.44048762 -0.41970074 0.052841544
0.43827933 -0.41661724 0.047949672
0.44198954 -0.41596791 0.037832379
0.44334584 -0.40277135 0.013956547
0.43059134 -0.41902372 0.052158117
0.43125463 -0.41454262 0.046177149
0.43275833 -0.415472 0.037684202
0.4335655 -0.40204212 0.013206363
0.42097598 -0.4188036 0.052657843
0.41798985 -0.4116478 0.044215679
0.42475206 -0.41357076 0.035357952
0.42079258 -0.40911436 0.028670669
0.42137003 -0.40091246 0.0069320202
0.41162682 -0.41907933 0.050869226
0.41367042 -0.41164315 0.035513878
0.40900803 -0.41324821 0.028891921
0.41596711 -0.40090618 0.016127229
0.40157336 -0.41866711 0.051337361
0.39806885 -0.41514972 0.043600202
0.406331 -0.41121468 0.037112713
0.39259773 -0.41805089 0.050712824
0.38874716 -0.41298929 0.041997552
0.39717031 -0.41104391 0.036453843
0.38362211 -0.41743466 0.050088167
0.37116194 -0.41689751 0.051042438
0.36090517 -0.41904816 0.057249069
0.36080742 -0.41742906 0.051149249
0.35131222 -0.41797125 0.058545589
0.35136634 -0.41715014 0.048597217
0.34049356 -0.41835377 0.059020281
0.34144473 -0.41672543 0.05048883
0.33088398 -0.41803497 0.056676388
0.33126986 -0.41601199 0.0497756
0.32198268 -0.41772741 0.058371305
0.3102659 -0.4211407 0.061352849
0.31335479 -0.41406223 0.060012341
0.31092012 -0.41458517 0.048349261
0.29903251 -0.42014265 0.061214328
0.29964614 -0.41651082 0.058802128
0.28953713 -0.41979173 0.062603593
0.2902016 -0.41586721 0.055995941
0.29072911 -0.41320884 0.046460629
0.28004962 -0.41914633 0.061956048
0.28198922 -0.41485062 0.055634737
0.27291 -0.41766116 0.061217904
0.26963001 -0.41469043 0.056035995
0.26205331 -0.41886526 0.060887337
0.26024759 -0.4125092 0.052054763
0.25133985 -0.41345406 0.052754521
0.25035059 -0.41025651 0.04459548
0.2353726 -0.41698125 0.052465558
0.24070442 -0.41269878 0.051351786
0.24033535 -0.40954369 0.043898106
0.22905177 -0.41064522 0.050803661
0.2187978 -0.41528791 0.053866863
0.21965629 -0.40897527 0.049163342
0.21762013 -0.40217274 0.0438025
0.21016783 -0.41469195 0.053279042
0.21052337 -0.40838063 0.049169064
0.20805287 -0.40749648 0.040628791
0.20153791 -0.41409594 0.05269134
0.20053172 -0.40769088 0.049711227
0 0 -1
0 0 -1
0 0 -1
0 0 -1
0 0 -1
0 0 -1
0 0 -1
0 0 -1
0 0 -1
0 0 -1
0 0 -1
0 0 -1
0 0 -1
0 0 -1
0 0 -1
0 0 -1
0 0 -1
0 0 -1
0 0 -1
0 0 -1
0 0 -1
0 0 -1
0 0 -1
0 0 -1
0 0 -1
0 0 -1
0 0 -1
0 0 -1
0 0 -1
0 0 -1
0 0 -1
0 0 -1
0 0 -1
0 0 -1
0 0 -1
0 0 -1
0 0 -1
0 0 -1
0 0 -1
0 0 -1
0 0 -1
0 0 -1
0 0 -1
0 0 -1
0 0 -1
0 0 -1
0 0 -1
0 0 -1
0 0 -1
0 0 -1
0 0 -1
0 0 -1
0 0 -1
0 0 -1
0 0 -1
0 0 -1
0 0 -1
0 0 -1
0 0 -1
0 0 -1
0 0 -1
0 0 -1
0 0 -1
0 0 -1
0 0 -1
0 0 -1
0 0 -1
0 0 -1
0 0 -1
0 0 -1
0 0 -1
0 0 -1
0 0 -1
0 0 -1
0 0 -1
0 0 -1
0 0 -1
0 0 -1
0 0 -1
0 0 -1
0 0 -1
0 0 -1
0 0 -1
0 0 -1
0 0 -1
0 0 -1
0 0 -1
0 0 -1
0 0 -1
0 0 -1
0 0 -1
0 0 -1
0 0 -1
0 0 -1
0 0 -1
0 0 -1
0 0 -1
0 0 -1
0 0 -1
0 0 -1
0 0 -1
0 0 -1
0 0 -1
0 0 -1
0 0 -1
2.3282478 -0.16709507 -0.73113155
2.2941263 -0.1645509 -0.73374891
2.2770658 -0.16327882 -0.73505783
2.2429442 -0.16073459 -0.73767543
2.2258835 -0.15946257 -0.73898435
2.2088227 -0.15819049 -0.74029303
2.1729407 -0.15367877 -0.74238706
2.1549716 -0.15044376 -0.74309039
2.1230628 -0.18167743 -0.68721223
2.1283836 -0.17883664 -0.69437647
2.1332979 -0.15544403 -0.73097873
2.1163507 -0.15418047 -0.73227906
2.1064758 -0.16255963 -0.72497344
2.1133404 -0.15479064 -0.73044062
2.0904636 -0.16130763 -0.72618556
2.0730231 -0.16491231 -0.71702123
2.0744514 -0.16005561 -0.72739744
2.0651309 -0.17376027 -0.6920104
2.0708351 -0.16730809 -0.70483017
2.0506482 -0.17178088 -0.69321012
2.0351415 -0.15735584 -0.71645284
2.0264149 -0.15629947 -0.73103309
2.0191765 -0.16403949 -0.71246314
2.0207582 -0.1579839 -0.7270112
2.0034797 -0.16239589 -0.71021485
2.0104027 -0.15504742 -0.73224473
1.9957813 -0.16427445 -0.70472336
1.9943906 -0.15379536 -0.73345685
1.9866408 -0.16116789 -0.7115612
1.9798183 -0.16245887 -0.70586848
1.9783785 -0.15254331 -0.73466873
1.9638553 -0.16064331 -0.70701337
1.969802 -0.15993983 -0.71290731
1.9720707 -0.15329623 -0.72929692
1.9467854 -0.16093248 -0.69957399
1.9478922 -0.15882781 -0.70815802
1.9319292 -0.15701225 -0.7093029
1.9300603 -0.1597127 -0.70091128
1.9222589 -0.15053594 -0.7344861
1.5565627 -0.45472544 0.044579744
1.5444806 -0.45618311 0.051290989
1.5489281 -0.45241573 0.045846939
1.5348693 -0.45538363 0.053587794
1.5362782 -0.45323923 0.042251348
1.5201437 -0.46140188 0.053176641
1.5227488 -0.4537271 0.052583694
1.5265434 -0.4519482 0.042298317
1.5284567 -0.4528611 0.033890486
1.5162073 -0.45329958 0.04993093
1.5117345 -0.45047626 0.041193366
1.5040282 -0.4591994 0.051841736
1.5045323 -0.45291433 0.045731306
1.503324 -0.45166308 0.038379431
1.4941685 -0.45379347 0.046400547
1.4919091 -0.44837764 0.039670467
1.4847465 -0.45403171 0.048135281
1.4816931 -0.44476876 0.041024804
1.4887253 -0.43825847 0.021380424
1.4762894 -0.45165682 0.045757651
1.4657607 -0.45208541 0.043294191
1.4677291 -0.43828458 0.014601827
1.457377 -0.45093623 0.044599891
1.460109 -0.4485873 0.035370111
1.4559053 -0.43729764 0.01648736
1.4474201 -0.44973475 0.04470253
1.4470885 -0.43515393 0.018186331
1.4367929 -0.44927686 0.045458555
1.4396956 -0.43772599 0.023734093
1.4270377 -0.44787666 0.04265213
1.4276979 -0.44628051 0.033113122
1.4148438 -0.44656137 0.048452616
1.4146487 -0.44663137 0.043179631
1.4059129 -0.44591802 0.046824455
1.4041634 -0.44533861 0.039539933
1.4060905 -0.44474271 0.031608582
1.3965151 -0.44863358 0.046979547
1.3935568 -0.44449705 0.041387677
1.3952868 -0.44397378 0.030856371
1.3871474 -0.45135316 0.047136903
1.3850445 -0.44333541 0.041594028
1.386493 -0.441735 0.032407403
1.3751398 -0.44971213 0.04614234
1.3738909 -0.4439263 0.039005876
1.3736793 -0.44243592 0.029351711
1.3637105 -0.4479309 0.045305729
1.3646009 -0.44214123 0.039732575
1.3711965 -0.43991315 0.020051122
1.3526706 -0.446235 0.045832634
1.3540016 -0.44090584 0.039823055
1.343029 -0.44504237 0.045651674
1.346952 -0.44230768 0.03658855
1.3330746 -0.44538367 0.042861819
1.3356159 -0.44277325 0.037563562
1.3219323 -0.44359937 0.044138551
1.3261228 -0.4418872 0.038141608
1.3133165 -0.44275135 0.043455243
1.315501 -0.44053349 0.037908673
1.3191147 -0.43745336 0.023449779
1.304044 -0.44193301 0.040804386
1.2947164 -0.44213098 0.041875362
1.2869236 -0.44573587 0.045923233
1.2850344 -0.43969885 0.041132212
1.2835755 -0.4386971 0.031307817
1.2750175 -0.44410875 0.044937015
1.2744093 -0.43984497 0.041071296
1.2726803 -0.43793315 0.030544162
1.2658331 -0.44423375 0.04428947
1.2653511 -0.43853936 0.041022062
1.2551739 -0.44139683 0.043293357
1.2565897 -0.43792623 0.037806749
1.2460566 -0.43694469 0.041387439
1.249696 -0.43661553 0.032053113
1.2355657 -0.44034308 0.043855667
1.2360902 -0.43701845 0.039590716
1.2393496 -0.43405679 0.03247571
1.2251227 -0.4400124 0.042537332
1.2271054 -0.43518206 0.039746881
1.2279513 -0.43509081 0.030529022
1.2266345 -0.42913437 0.0089614391
1.2160636 -0.43909949 0.04180181
1.2170603 -0.43587548 0.037264943
1.2170788 -0.4343285 0.029766798
1.2073674 -0.43867424 0.041313767
1.2059145 -0.43453029 0.036159515
1.2072114 -0.43176949 0.030238032
1.1962148 -0.4378455 0.041587234
1.1964202 -0.43319923 0.0384022
1.1964986 -0.431007 0.029491901
1.1855351 -0.43773603 0.041165471
1.1858591 -0.43190011 0.03509438
1.1747479 -0.43669772 0.040545225
1.1768825 -0.42968661 0.033616304
1.1637418 -0.43506065 0.040807128
1.1683421 -0.43123978 0.033221364
1.1558789 -0.43604147 0.039526701
1.1582171 -0.4297924 0.033450842
1.1455792 -0.43385395 0.039419174
1.1479475 -0.4315843 0.032084584
1.1432476 -0.42363459 0.014214635
1.1315169 -0.44019407 0.042116642
1.1357833 -0.4329167 0.037203789
1.1363363 -0.43138373 0.029073238
1.1330051 -0.42287087 0.013429046
1.1236773 -0.43912265 0.041467309
1.1250589 -0.43277472 0.038020968
1.1272726 -0.42951104 0.030305862
1.1227626 -0.42210719 0.012643337
1.1158377 -0.43805134 0.040818095
1.1147513 -0.43086702 0.038077354
1.1122791 -0.42165175 0.017134666
1.1030837 -0.43482903 0.042237878
1.1048347 -0.43230474 0.038508534
1.092216 -0.43315211 0.042244077
1.0952765 -0.4330436 0.037561178
1.0826857 -0.43334374 0.040931344
1.0858678 -0.43194279 0.035951376
1.0918698 -0.42013001 0.015568972
1.0735672 -0.43288964 0.039897799
1.0756971 -0.42987862 0.034898877
1.0816652 -0.41936919 0.014786124
1.063426 -0.43314511 0.039456487
1.0650634 -0.42893961 0.035087585
1.0714606 -0.41860828 0.014003277
1.0533292 -0.43221426 0.039614439
1.0540733 -0.4291881 0.033717394
1.0430384 -0.43086594 0.038591146
1.0442277 -0.42787892 0.034606814
1.0510513 -0.41708651 0.012437701
1.0334756 -0.42914703 0.038546205
1.0408466 -0.41632566 0.011654973
1.0242776 -0.42879423 0.039546728
1.0294249 -0.42741144 0.035289526
1.030642 -0.41556475 0.010871887
1.0149565 -0.42833751 0.038353443
1.0183898 -0.42667004 0.034534931
1.0204374 -0.41480392 0.010089159
1.0050802 -0.4275246 0.037708402
1.0102327 -0.41404301 0.0093064308
0.99565291 -0.4269076 0.038591862
1.0000281 -0.41328216 0.0085237026
0.9856177 -0.427926 0.042862773
0.98483229 -0.42639056 0.03826046
0.97438025 -0.42330989 0.0422858
0.9740985 -0.42584968 0.037754059
0.97961879 -0.41176042 0.0069578886
0.96360022 -0.42361292 0.042073488
0.9637993 -0.42457485 0.035898209
0.96941417 -0.41099951 0.0061751604
0.95386451 -0.42544031 0.04131031
0.95406532 -0.42286879 0.034256458
0.9592095 -0.41023859 0.005392313
0.94189125 -0.4275648 0.04081285
0.9444207 -0.42271289 0.035512328
0.94937003 -0.4098312 0.0099331141
0.93240577 -0.42573014 0.040387988
0.93376535 -0.42198604 0.03502059
0.93928391 -0.41890255 0.01165998
0.92366332 -0.42423347 0.038757801
0.92455018 -0.41888541 0.034686446
0.9285956 -0.40795606 0.00304389
0.91446191 -0.42504749 0.03903091
0.91469288 -0.4214415 0.033079028
0.91904128 -0.4173933 0.01010716
0.90493345 -0.42323151 0.037846327
0.90448761 -0.42116731 0.031806469
0.90943813 -0.41696811 0.014680147
0.89510465 -0.42279643 0.037142992
0.89324343 -0.42193538 0.032535076
0.8987987 -0.4158839 0.0085542202
0.89853621 -0.40604091 0.0060334206
0.88304019 -0.42885301 0.042171121
0.88374782 -0.42319322 0.037411451
0.88329417 -0.42108995 0.031801105
0.88777709 -0.40491259 -8.7380409e-05
0.87346965 -0.42794627 0.043599844
0.87387538 -0.42194283 0.037325621
0.87371361 -0.42146319 0.031590939
0.87918794 -0.41471264 0.012359738
0.87820268 -0.40452486 0.0044736862
0.86390692 -0.42779472 0.043403149
0.86495751 -0.42158744 0.037090302
0.86383075 -0.42056265 0.030893087
0.85417509 -0.42695743 0.042693138
0.85508269 -0.41970274 0.035997748
0.84347236 -0.42538553 0.041678071
0.84531128 -0.41979101 0.036542058
0.84525692 -0.41394216 0.019374967
0.83296168 -0.42437744 0.039573669
0.83439493 -0.41710967 0.034840584
0.83793181 -0.4134478 0.01885581
0.83885419 -0.41170523 0.0092656612
0.82438958 -0.42182845 0.039445281
0.82436454 -0.41647229 0.035263777
0.8288793 -0.41273892 0.02148807
0.82794958 -0.41060135 0.0031193495
0.81336373 -0.421554 0.03917551
0.81472373 -0.4165234 0.034616709
0.81535846 -0.41433913 0.025033832
0.81868732 -0.41020164 0.0077186823
0.80369878 -0.42061487 0.03733325
0.80379504 -0.4143818 0.032312632
0.8096559 -0.41457084 0.027528524
0.80860388 -0.40944976 0.0069451332
0.79447246 -0.41915146 0.036786914
0.79362714 -0.41508532 0.030403852
0.79852051 -0.40869796 0.0061714649
0.78421944 -0.41910797 0.037133455
0.78384566 -0.41388002 0.033439994
0.78940976 -0.40830952 0.010782599
0.77680731 -0.42468894 0.044799209
0.77366889 -0.41875196 0.037385941
0.77558053 -0.41340053 0.032604694
0.77936423 -0.40756053 0.010011911
0.76515239 -0.42424729 0.043938398
0.76355535 -0.41756538 0.03800118
0.76586157 -0.41219172 0.032763243
0.7693187 -0.40681157 0.0092413425
0.75458175 -0.42351654 0.043209076
0.75441295 -0.41682315 0.036484957
0.75506115 -0.40965563 0.032207966
0.74438453 -0.42251065 0.042582273
0.74414629 -0.41671279 0.036154389
0.74599373 -0.40950888 0.030598402
0.74810338 -0.40493876 0.0023039579
0.73280275 -0.41945446 0.04219842
0.73462337 -0.41530824 0.03511107
0.7366578 -0.40879732 0.031530261
0.73918205 -0.40456447 0.0069295168
0.72188598 -0.41839871 0.040658951
0.72345054 -0.4142352 0.035764933
0.72375065 -0.40738663 0.028773546
0.73033643 -0.40419582 0.011560798
0.71180803 -0.41906863 0.041467309
0.71333444 -0.41311929 0.036032915
0.72032881 -0.40344962 0.01079309
0.70318258 -0.4175477 0.040165782
0.7039535 -0.41197577 0.035636783
0.71032113 -0.40270346 0.010025382
0.69318736 -0.41644919 0.039787769
0.69425321 -0.41229358 0.03602612
0.67834115 -0.41655052 0.047333598
0.68317741 -0.4161799 0.040005207
0.68548417 -0.4124532 0.03444612
0.68372524 -0.40446755 0.025573611
0.68895435 -0.40081945 0.0030764341
0.67280996 -0.41471204 0.038532257
0.67407751 -0.4080351 0.034765601
0.68029809 -0.40046492 0.0077223778
0.66587043 -0.41879675 0.049529433
0.66327196 -0.41434586 0.038243175
0.66417408 -0.4072879 0.033252001
0.66174787 -0.3993727 0.011609197
0.67029047 -0.3997187 0.0069544315
0.65344447 -0.41385439 0.037905455
0.65707701 -0.409327 0.030473232
0.64131445 -0.41727623 0.044939876
0.64365649 -0.41347876 0.03805995
0.64878148 -0.40543503 0.029976726
0.65027517 -0.39822629 0.0054191351
0.63222831 -0.41640675 0.044264674
0.63345188 -0.4117749 0.038130164
0.63017833 -0.40484786 0.033049941
0.64180839 -0.39788595 0.010079503
0.62307996 -0.41469583 0.042888403
0.62282783 -0.41077182 0.037979126
0.62470818 -0.40641287 0.015620232
0.63183862 -0.39714259 0.0093147755
0.61258703 -0.4130162 0.042806268
0.61376864 -0.41067931 0.037177444
0.62186885 -0.39639923 0.0085499287
0.60344893 -0.41158926 0.042021632
0.60372669 -0.40910521 0.036803603
0.60492015 -0.40493745 0.014102221
0.61189896 -0.39565587 0.0077852011
0.59240413 -0.41127554 0.041712761
0.59317768 -0.40866336 0.037465334
0.59502614 -0.40419978 0.013343334
0.58251321 -0.41014469 0.04146409
0.58527303 -0.40828812 0.037207127
0.58513212 -0.40346202 0.012584209
0.57313478 -0.41022465 0.040226698
0.57517278 -0.40737814 0.03358531
0.57523805 -0.40272433 0.011825323
0.55772913 -0.41231176 0.048292994
0.56375051 -0.41027519 0.040881515
0.56421173 -0.4075098 0.034631491
0.55306566 -0.4128716 0.048594952
0.55343521 -0.40965876 0.040073514
0.55550325 -0.40542451 0.036782026
0.55545002 -0.4012489 0.010307312
0.54638791 -0.4160372 0.046921492
0.54249203 -0.40857881 0.040876269
0.54581052 -0.40370804 0.031941652
0.54747707 -0.40091002 0.015019894
0.52940398 -0.41421723 0.041712165
0.53318387 -0.40778905 0.040432453
0.53103012 -0.4034135 0.030987024
0.53566194 -0.39977345 0.0087893009
0.53409815 -0.39014587 0.0071268082
0.52132833 -0.41062117 0.047549129
0.52380037 -0.40609929 0.038262725
0.52722162 -0.40807927 0.032534361
0.52576792 -0.39903575 0.0080304146
0.51208901 -0.40962303 0.047197819
0.51260513 -0.40608829 0.039634824
0.51587391 -0.398298 0.0072712898
0.50154424 -0.40809736 0.04640317
0.50342983 -0.40531391 0.039148331
0.50663006 -0.40661371 0.031100392
0.5043025 -0.38792425 0.0048412085
0.48955184 -0.41469297 0.052016139
0.49126005 -0.40854841 0.044582248
0.49404448 -0.40412343 0.038245559
0.49263716 -0.39733231 0.021461844
0.49608582 -0.3968226 0.0057532787
0.47957188 -0.41416278 0.050861955
0.48230916 -0.40717104 0.043316841
0.48453498 -0.40481761 0.038775563
0.48285669 -0.39660311 0.020711541
0.47206688 -0.41138741 0.051033974
0.4722743 -0.40795609 0.043044209
0.47551221 -0.40302157 0.037247181
0.46307629 -0.40957353 0.050715327
0.46197248 -0.40621763 0.041498661
0.46664321 -0.40417388 0.038681149
0.46204615 -0.39838257 0.025471926
0.46103394 -0.39472029 0.013713121
0.46862781 -0.39503095 0.0089713335
0.45179182 -0.40986851 0.050931692
0.45273685 -0.40601093 0.040189385
0.45444059 -0.39801037 0.030205369
0.45121562 -0.39398822 0.012959957
0.43900192 -0.40654656 0.057621956
0.44027781 -0.40875265 0.050193787
0.44230026 -0.40503946 0.039857745
0.44437677 -0.40097466 0.035561204
0.44139731 -0.39325619 0.012206793
0.42865741 -0.40817365 0.056014061
0.43039876 -0.40635383 0.050213575
0.43206906 -0.40496346 0.039000988
0.43449235 -0.40330106 0.035568833
0.43395478 -0.39295688 0.016960144
0.41899931 -0.40751654 0.055354834
0.42396802 -0.40886888 0.049735069
0.42406183 -0.40358341 0.038280845
0.42313355 -0.40358561 0.034154177
0.4217608 -0.39179203 0.010700464
0.40879542 -0.41239569 0.057343483
0.41142195 -0.40681204 0.050376773
0.41497135 -0.40212443 0.038202047
0.41347492 -0.39983395 0.03258419
0.3991558 -0.41138875 0.055577159
0.40949094 -0.3906216 0.004434824
0.39294767 -0.40964797 0.05397296
0.38801563 -0.40002513 0.045839787
0.39272594 -0.39355651 0.02854991
0.38449883 -0.41029119 0.055131793
0.37243551 -0.4094069 0.056356192
0.36854386 -0.40851435 0.046013594
0.36127675 -0.41008881 0.060734749
0.36083162 -0.40831849 0.051804304
0.35168779 -0.40939179 0.060083628
0.35177183 -0.40762192 0.0523417
0.34101909 -0.40891999 0.06085515
0.34157807 -0.4069072 0.051627159
0.33114922 -0.40818039 0.059673786
0.33167464 -0.40650153 0.053513169
0.32216668 -0.40799087 0.062122345
0.30786514 -0.40962604 0.065546393
0.31367421 -0.40640512 0.062970042
0.31099653 -0.40476298 0.049483538
0.29697692 -0.40883744 0.06587553
0.30171752 -0.40675917 0.059293985
0.30146503 -0.40425584 0.05096662
0.28944623 -0.40857327 0.065644503
0.29105181 -0.40495577 0.057602048
0.2911306 -0.40354165 0.050237417
0.28039593 -0.40995768 0.063376546
0.28146517 -0.40383354 0.057971478
0.27187675 -0.4067615 0.063208342
0.27064341 -0.40357503 0.058187962
0.26246554 -0.4061448 0.061493158
0.26003152 -0.40400025 0.055973411
0.26077402 -0.40161556 0.048990965
0.25158691 -0.4024449 0.055391908
0.2365756 -0.40435687 0.059729815
0.24116343 -0.40203583 0.055964112
0.22811818 -0.39971992 0.06070447
0.22979677 -0.4012568 0.052133799
0.2205416 -0.39916044 0.051477075
0.21878898 -0.39854336 0.045134544
0.21012086 -0.39977419 0.050342441
0.20957607 -0.39794046 0.044954777
0.20054263 -0.39872596 0.049117446
0 0 -1
0 0 -1
0 0 -1
0 0 -1
0 0 -1
0 0 -1
0 0 -1
0 0 -1
0 0 -1
0 0 -1
0 0 -1
0 0 -1
0 0 -1
0 0 -1
0 0 -1
0 0 -1
0 0 -1
0 0 -1
0 0 -1
0 0 -1
0 0 -1
0 0 -1
0 0 -1
0 0 -1
0 0 -1
0 0 -1
0 0 -1
0 0 -1
0 0 -1
0 0 -1
0 0 -1
0 0 -1
0 0 -1
0 0 -1
0 0 -1
0 0 -1
0 0 -1
0 0 -1
0 0 -1
0 0 -1
0 0 -1
0 0 -1
0 0 -1
0 0 -1
0 0 -1
0 0 -1
0 0 -1
0 0 -1
0 0 -1
0 0 -1
0 0 -1
0 0 -1
0 0 -1
0 0 -1
0 0 -1
0 0 -1
0 0 -1
0 0 -1
0 0 -1
0 0 -1
0 0 -1
0 0 -1
0 0 -1
0 0 -1
0 0 -1
0 0 -1
0 0 -1
0 0 -1
0 0 -1
0 0 -1
0 0 -1
0 0 -1
0 0 -1
0 0 -1
0 0 -1
0 0 -1
0 0 -1
0 0 -1
0 0 -1
0 0 -1
0 0 -1
0 0 -1
0 0 -1
